ply
format ascii 1.0
element vertex 54
property float x
property float y
property float z
property uchar red
property uchar green
property uchar blue
end_header
-158.183 258.102 -160.018 255 255 255
-1.41874 279.304 -181.428 255 255 255
-235.563 190.034 72.1875 255 255 255
112.447 -90.3392 249.378 255 255 255
35.8422 -39.6576 -6.04675  0 255 0
35.8757 -39.1209 -10.6012  0 255 0
36.8481 -38.4704 -16.196  0 255 0
34.9142 -38.1217 -20.3722  0 255 0
33.8797 -36.4979 -26.9392  0 255 0
31.0622 -35.0923 -32.2436  0 255 0
28.263 -33.5248 -36.1788  0 255 0
23.1959 -32.9794 -41.883  0 255 0
17.747 -30.356 -46.6861  0 255 0
13.4074 -29.6206 -47.8357  0 255 0
6.6326 -28.067 -51.0082  0 255 0
1.06779 -27.9191 -53.4425  0 255 0
-5.36322 -24.1726 -54.9555  0 255 0
-13.5461 -24.0955 -54.7525  0 255 0
-20.0014 -22.1645 -54.5554  0 255 0
-28.4109 -18.7368 -54.0109  0 255 0
-34.3058 -18.3653 -51.1927  0 255 0
-42.5735 -15.3489 -47.6967  0 255 0
-49.1781 -14.4776 -42.5512  0 255 0
-51.4948 -12.4386 -35.1108  0 255 0
-55.6883 -10.6575 -30.4439  0 255 0
-60.8643 -8.80752 -25.1581  0 255 0
-62.8899 -5.72631 -16.083  0 255 0
-66.7467 -4.25164 -8.02109  0 255 0
-68.6906 -2.02839 0.352893  0 255 0
-67.2264 0.542311 7.78256  0 255 0
-68.1652 2.0202 15.7214  0 255 0
-66.5039 4.46952 24.8167  0 255 0
-61.8421 5.64896 31.454  0 255 0
-57.0683 9.96941 39.7181  0 255 0
-51.3284 11.6321 46.1779  0 255 0
-45.8932 13.7102 53.464  0 255 0
-37.8798 15.5275 56.7484  0 255 0
-31.6158 18.8315 60.938  0 255 0
-23.1377 19.7161 65.4147  0 255 0
-15.173 24.0455 64.9634  0 255 0
-5.53616 25.0477 67.1812  0 255 0
-0.361106 27.8566 67.2042  0 255 0
9.88247 30.2066 65.7763  0 255 0
16.9123 33.821 63.2717  0 255 0
26.0726 35.5669 59.5248  0 255 0
32.3271 37.149 54.5711  0 255 0
38.6396 40.4515 49.472  0 255 0
43.3963 43.0097 44.2673  0 255 0
47.4973 45.8921 36.2704  0 255 0
50.2915 49.402 30.1017  0 255 0
52.9035 51.8493 21.054  0 255 0
54.9355 52.9729 15.1763  0 255 0
55.9955 55.9669 8.76439  0 255 0
54.0691 57.2162 -1.46416  0 255 0
