ply
format ascii 1.0
element vertex 54
property float x
property float y
property float z
property uchar red
property uchar green
property uchar blue
end_header
82.1228 -518.044 -182.526 255 255 255
-59.2534 -951.102 -317.982 255 255 255
-81.8957 -1072.86 -358.473 255 255 255
172.285 -191.284 -115.775 255 255 255
313.517 1405.88 405.379  0 255 0
319.389 1386.61 412.807  0 255 0
342.711 1517.42 473.091  0 255 0
77.2979 -115.91 -39.5956  0 255 0
87.614 -127.167 -45.8319  0 255 0
71.4038 -117.042 -30.7831  0 255 0
62.4468 -113.362 -21.7407  0 255 0
62.3072 -118.283 -21.6094  0 255 0
56.4027 -119.23 -16.53  0 255 0
52.0573 -119.807 -14.4594  0 255 0
53.1924 -158.152 -8.58855  0 255 0
40.0147 -122.32 -8.64186  0 255 0
33.7109 -123.83 -7.74674  0 255 0
25.6333 -125.663 -6.1898  0 255 0
19.001 -127.172 -7.01765  0 255 0
12.0544 -129.636 -8.0894  0 255 0
4.97754 -130.729 -10.6947  0 255 0
-1.5255 -134.203 -15.0231  0 255 0
-2.62138 -137.604 -19.7963  0 255 0
-10.81 -133.089 -25.3641  0 255 0
-13.9596 -133.947 -28.6152  0 255 0
-19.0251 -136.704 -37.1331  0 255 0
-22.1365 -137.369 -44.9813  0 255 0
-27.4223 -134.144 -47.6561  0 255 0
-32.1615 -137.558 -60.3867  0 255 0
-26.8212 -136.233 -67.7498  0 255 0
-28.0519 -132.896 -74.9979  0 255 0
-25.7052 -128.162 -80.4837  0 255 0
-23.503 -126.297 -87.2726  0 255 0
-12.18 -126.609 -91.6924  0 255 0
-15.1081 -123.138 -101.186  0 255 0
-11.0827 -120.48 -107.048  0 255 0
-4.4713 -120.997 -112.626  0 255 0
1.37502 -119.26 -117.257  0 255 0
8.77096 -117.989 -122.223  0 255 0
8.85325 -110.821 -128.653  0 255 0
25.5451 -119.366 -128.661  0 255 0
29.2391 -130.411 -124.141  0 255 0
41.339 -121.615 -132.317  0 255 0
50.9036 -124.972 -133.072  0 255 0
61.3531 -129.934 -133.094  0 255 0
68.4665 -134.699 -132.335  0 255 0
85.8161 -141.994 -131.159  0 255 0
84.9108 -147.654 -129.237  0 255 0
93.7659 -156.673 -126.189  0 255 0
99.222 -164.243 -122.844  0 255 0
104.572 -173.293 -117.842  0 255 0
150.744 -174.047 -101.711  0 255 0
108.092 -180.251 -112.711  0 255 0
120.535 -151.933 -80.8247  0 255 0
