ply
format ascii 1.0
element vertex 54
property float x
property float y
property float z
property uchar red
property uchar green
property uchar blue
end_header
1.89509 328.643 -90.3769 255 255 255
-17.4042 291.587 -156.921 255 255 255
-168.061 247.971 138.978 255 255 255
29.0138 -100.997 271.896 255 255 255
35.8004 -39.1573 -6.44192  0 255 0
34.7798 -38.3972 -11.8581  0 255 0
35.9886 -39.4295 -16.3981  0 255 0
34.0009 -35.9475 -23.1746  0 255 0
34.4434 -35.1029 -26.4556  0 255 0
30.5137 -34.8354 -33.5834  0 255 0
26.5118 -33.9205 -37.2977  0 255 0
22.6369 -32.6197 -42.3111  0 255 0
18.2732 -30.9061 -46.0522  0 255 0
13.374 -28.7988 -48.3711  0 255 0
7.49837 -27.8877 -53.8645  0 255 0
0.0194913 -25.9765 -56.4958  0 255 0
-7.41953 -26.2788 -55.5629  0 255 0
-13.6347 -24.7042 -55.0561  0 255 0
-19.8719 -20.1604 -54.2457  0 255 0
-28.1205 -17.7971 -53.5726  0 255 0
-34.8688 -17.4998 -50.8283  0 255 0
-41.1367 -17.0951 -47.2594  0 255 0
-48.0656 -15.4315 -41.7961  0 255 0
-52.2573 -11.5459 -36.5297  0 255 0
-59.1237 -9.22806 -31.5629  0 255 0
-60.9432 -9.481 -24.9143  0 255 0
-63.7238 -7.53811 -18.1335  0 255 0
-68.1595 -5.97115 -8.40623  0 255 0
-67.8532 -2.80848 -1.84885  0 255 0
-69.3184 0.455632 5.98515  0 255 0
-67.5291 -0.135269 16.2031  0 255 0
-65.6979 5.54571 24.7446  0 255 0
-60.6933 5.84411 31.8183  0 255 0
-57.064 9.16529 38.8166  0 255 0
-51.5017 9.76421 44.2933  0 255 0
-44.4358 13.5291 52.2535  0 255 0
-39.3631 14.8749 55.1935  0 255 0
-30.741 17.0641 60.5328  0 255 0
-23.3129 19.9299 64.048  0 255 0
-13.5693 23.1118 63.8582  0 255 0
-7.7249 25.8262 66.7612  0 255 0
0.537763 27.6827 64.4471  0 255 0
9.10511 28.7072 64.9296  0 255 0
17.2378 32.6327 60.978  0 255 0
23.2651 35.0772 58.6668  0 255 0
31.938 38.1379 52.0884  0 255 0
37.7775 39.9992 46.9294  0 255 0
43.2303 40.8548 40.9962  0 255 0
47.1042 45.2669 35.1663  0 255 0
49.6963 46.1703 28.8356  0 255 0
52.1772 49.0447 20.862  0 255 0
55.7155 53.4452 13.4193  0 255 0
54.5447 54.9648 7.03159  0 255 0
52.5458 57.2273 0.163446  0 255 0
