ply
format ascii 1.0
element vertex 54
property float x
property float y
property float z
property uchar red
property uchar green
property uchar blue
end_header
-2.39826 -342.857 -0.0965442 0 0 0
-74.2695 -324.024 19.4677 0 0 0
-88.4575 -295.17 40.4183 0 0 0
1.32355 -285.591 37.0175 0 0 0
35.7473 -39.5098 -5.82651  0 0 255
35.7687 -38.9802 -10.3894  0 0 255
36.7472 -38.3481 -15.9991  0 0 255
34.8091 -38.0022 -20.1701  0 0 255
33.7012 -36.4347 -26.8069  0 0 255
30.9602 -35.0004 -32.0826  0 0 255
28.2076 -33.4447 -35.9972  0 0 255
23.0794 -32.9262 -41.7485  0 0 255
17.6246 -30.3228 -46.5613  0 0 255
13.2753 -29.6017 -47.7086  0 0 255
6.30924 -28.3273 -50.7948  0 0 255
0.914041 -27.9411 -53.3391  0 0 255
-5.51708 -24.207 -54.8633  0 0 255
-13.7108 -24.152 -54.66  0 0 255
-20.1625 -22.232 -54.4791  0 0 255
-28.5796 -18.8135 -53.9455  0 0 255
-34.4615 -18.4474 -51.1403  0 0 255
-42.7358 -15.4347 -47.6554  0 0 255
-49.3789 -14.6004 -42.4803  0 0 255
-51.6281 -12.5021 -35.0712  0 0 255
-55.8234 -10.7026 -30.3927  0 0 255
-60.9849 -8.85585 -25.142  0 0 255
-62.9819 -5.75046 -16.0572  0 0 255
-66.801 -4.2638 -7.95859  0 0 255
-68.7226 -1.99698 0.373338  0 0 255
-67.276 0.576905 7.82386  0 0 255
-68.2082 2.0609 15.7645  0 0 255
-66.5408 4.54533 24.8879  0 0 255
-61.8535 5.73747 31.5313  0 0 255
-57.1224 10.0434 39.8656  0 0 255
-51.3193 11.7467 46.2833  0 0 255
-45.8845 13.835 53.5871  0 0 255
-37.8596 15.6187 56.8477  0 0 255
-31.6058 18.9223 61.0413  0 0 255
-23.1364 19.7592 65.4966  0 0 255
-15.1286 24.0973 64.9722  0 0 255
-5.56325 24.9867 67.2193  0 0 255
-0.369869 27.818 67.328  0 0 255
9.81155 30.0814 65.8053  0 0 255
16.8143 33.7185 63.332  0 0 255
25.954 35.4282 59.5777  0 0 255
32.1999 36.9796 54.6069  0 0 255
38.454 40.3615 49.5668  0 0 255
43.2932 42.9959 44.4071  0 0 255
47.3938 45.9045 36.4297  0 0 255
50.2293 49.5377 30.3356  0 0 255
52.8291 51.9725 21.2932  0 0 255
54.7963 52.9959 15.549  0 0 255
55.9089 56.1518 9.02043  0 0 255
53.8777 57.2467 -1.18573  0 0 255
