ply
format ascii 1.0
element vertex 54
property float x
property float y
property float z
property uchar red
property uchar green
property uchar blue
end_header
-2.62938 -341.27 -0.821292 0 0 0
-74.1264 -322.536 18.6425 0 0 0
-104.125 -313.637 -7.49762 0 0 0
-23.653 -282.033 72.4067 0 0 0
35.6322 -39.1745 -6.36282  0 0 255
34.658 -38.3521 -11.7202  0 0 255
35.8342 -39.446 -16.2524  0 0 255
33.8298 -35.9722 -22.9992  0 0 255
34.2859 -35.1334 -26.2774  0 0 255
30.3465 -34.8719 -33.3854  0 0 255
26.3509 -33.9607 -37.0824  0 0 255
22.4771 -32.6651 -42.0879  0 0 255
18.1188 -30.9565 -45.8184  0 0 255
13.2262 -28.8523 -48.1276  0 0 255
7.35336 -27.9506 -53.6113  0 0 255
-0.121181 -26.0466 -56.2428  0 0 255
-7.55402 -26.3576 -55.3162  0 0 255
-13.7469 -24.7749 -54.8078  0 0 255
-19.974 -20.2253 -54.0099  0 0 255
-28.2263 -17.8604 -53.3425  0 0 255
-35.0221 -17.5433 -50.5298  0 0 255
-41.2157 -17.1504 -47.0509  0 0 255
-48.1301 -15.4982 -41.6099  0 0 255
-52.3154 -11.5664 -36.3333  0 0 255
-59.1826 -9.23191 -31.3751  0 0 255
-60.9999 -9.48453 -24.7256  0 0 255
-63.7443 -7.5029 -17.9605  0 0 255
-68.169 -5.90612 -8.24386  0 0 255
-67.7862 -2.71729 -1.66984  0 0 255
-69.3176 0.576905 6.14556  0 0 255
-67.5122 -0.00409443 16.3499  0 0 255
-65.6946 5.71048 24.903  0 0 255
-60.6608 5.99015 31.9532  0 0 255
-57.0396 9.31726 38.9649  0 0 255
-51.4667 9.86685 44.4069  0 0 255
-44.4273 13.6094 52.3748  0 0 255
-39.3618 14.9 55.2846  0 0 255
-30.773 16.9994 60.5784  0 0 255
-23.3759 19.8389 64.1015  0 0 255
-13.7025 22.9129 63.8375  0 0 255
-7.91596 25.5233 66.6905  0 0 255
0.303549 27.4747 64.4481  0 0 255
8.84394 28.4349 64.8521  0 0 255
16.9308 32.4704 61.0222  0 0 255
22.9537 35.0263 58.8078  0 0 255
31.6214 38.0865 52.2291  0 0 255
37.4354 39.9118 47.0569  0 0 255
42.8617 40.6556 41.0499  0 0 255
46.7528 45.1927 35.3231  0 0 255
49.2616 45.9801 28.9445  0 0 255
51.7384 48.6844 20.8455  0 0 255
55.3437 53.3143 13.5953  0 0 255
54.1608 54.7717 7.17873  0 0 255
52.1375 57.0159 0.339579  0 0 255
